# .PCD v0.7 - Point Cloud Data file format
VERSION 0.7
FIELDS x y z rgb
SIZE 4 4 4 4
TYPE F F F F
COUNT 1 1 1 1
WIDTH 964
HEIGHT 1
VIEWPOINT 0 0 0 1 0 0 0
POINTS 964
DATA ascii
0.035849527 -0.25459239 0.63800001 -3.103304e+38
0.05442667 -0.25060192 0.62800002 -3.2782414e+38
0.055622861 -0.25060192 0.62800002 -3.2496777e+38
0.056819052 -0.25060192 0.62800002 -3.2101639e+38
0.058015242 -0.25060192 0.62800002 -3.3698785e+38
0.081514291 -0.25299621 0.634 -3.3833793e+38
0.082721911 -0.25299621 0.634 -3.3832757e+38
0.084061913 -0.25339526 0.63500005 -3.3699836e+38
0.085271433 -0.25339526 0.63500005 -3.3700357e+38
0.08648096 -0.25339526 0.63500005 -3.3699838e+38
0.08769048 -0.25339526 0.63500005 -3.3966203e+38
0.10179048 -0.2553905 0.64000005 -3.3965676e+38
0.10300953 -0.2553905 0.64000005 -3.3833274e+38
0.10422858 -0.2553905 0.64000005 -3.3700877e+38
0.10561239 -0.25578955 0.64100003 -3.3834325e+38
0.10683334 -0.25578955 0.64100003 -3.3966205e+38
0.1080543 -0.25578955 0.64100003 -3.3832242e+38
0.10927524 -0.25578955 0.64100003 -3.3567433e+38
0.1104962 -0.25578955 0.64100003 -3.3832759e+38
0.11189143 -0.2561886 0.64200002 -3.396568e+38
0.11346667 -0.25698668 0.64400005 -3.3965158e+38
0.11469334 -0.25698668 0.64400005 -3.3965156e+38
0.12224287 -0.25738573 0.64500004 -3.3963591e+38
0.12366287 -0.25778478 0.64600003 -3.3963591e+38
0.12508668 -0.25818384 0.64700001 -3.3963591e+38
0.1265143 -0.25858286 0.648 -3.3830668e+38
0.12814286 -0.25938097 0.65000004 -3.3564824e+38
0.12938096 -0.25938097 0.65000004 -3.3565347e+38
0.13061905 -0.25938097 0.65000004 -3.3564826e+38
-2.5871668 -2.2712603 5.7190003 -2.9838818e+38
-2.6195192 -2.3093858 5.8150001 -3.1041362e+38
-2.608443 -2.3093858 5.8150001 -3.1439619e+38
-2.5973668 -2.3093858 5.8150001 -3.1707035e+38
-2.5435934 -2.2712603 5.7190003 -3.2370101e+38
-2.5327001 -2.2712603 5.7190003 -3.2902318e+38
-2.5218067 -2.2712603 5.7190003 -3.3037843e+38
-2.5109136 -2.2712603 5.7190003 -3.317181e+38
-2.5000203 -2.2712603 5.7190003 -3.3438698e+38
-2.4891269 -2.2712603 5.7190003 -3.3837992e+38
-2.4782336 -2.2712603 5.7190003 -3.3705594e+38
-2.4673402 -2.2712603 5.7190003 -3.3572152e+38
-2.4564469 -2.2712603 5.7190003 -3.3706633e+38
-2.4455535 -2.2712603 5.7190003 -3.3840073e+38
-0.16935429 -0.21207429 0.53400004 -3.3468907e+38
-0.16833715 -0.21207429 0.53400004 -3.3840594e+38
-0.12679334 -0.21406001 0.53900003 -3.3967767e+38
-0.12576668 -0.21406001 0.53900003 -3.3968807e+38
-0.12474 -0.21406001 0.53900003 -3.3968807e+38
-0.12371334 -0.21406001 0.53900003 -3.3967252e+38
-0.12268668 -0.21406001 0.53900003 -3.3967771e+38
-0.12166001 -0.21406001 0.53900003 -3.3967769e+38
-0.10366953 -0.21723716 0.54700005 -3.3966718e+38
-0.10262763 -0.21723716 0.54700005 -3.3966201e+38
-0.095508575 -0.21763431 0.54800004 -3.3967233e+38
-0.094637148 -0.21803144 0.54900002 -3.383431e+38
-0.093761913 -0.21842858 0.55000001 -3.383431e+38
-0.092882864 -0.21882573 0.551 -3.3967231e+38
-0.083891436 -0.22001715 0.55400002 -3.3827546e+38
-0.082985722 -0.2204143 0.55500001 -3.3695145e+38
-0.081928574 -0.2204143 0.55500001 -3.3562743e+38
-0.081162862 -0.22120859 0.55700004 -3.3430855e+38
-0.080245718 -0.22160573 0.55800003 -3.3562735e+38
-0.079182863 -0.22160573 0.55800003 -3.369566e+38
-0.078260005 -0.22200288 0.55900002 -3.3695662e+38
-0.077195242 -0.22200288 0.55900002 -3.3695147e+38
-0.07613048 -0.22200288 0.55900002 -3.3562226e+38
-0.075200006 -0.22240001 0.56 -3.3428255e+38
-0.074265718 -0.22279716 0.56100005 -3.2895515e+38
-0.073458098 -0.22359145 0.56300002 -3.236226e+38
-0.072514288 -0.22398859 0.56400001 -3.2227771e+38
-0.071313336 -0.22359145 0.56300002 -3.2092765e+38
-0.07024096 -0.22359145 0.56300002 -3.2091202e+38
-0.069291435 -0.22398859 0.56400001 -3.2093289e+38
-0.068217151 -0.22398859 0.56400001 -3.2095895e+38
-0.067142859 -0.22398859 0.56400001 -3.2097978e+38
-0.093947627 -0.35941431 0.90500003 -3.2363822e+38
-0.092223816 -0.35941431 0.90500003 -3.2230899e+38
-0.090500005 -0.35941431 0.90500003 -3.2099014e+38
-0.088776194 -0.35941431 0.90500003 -3.1964534e+38
-0.08705239 -0.35941431 0.90500003 -3.1962976e+38
-0.085328579 -0.35941431 0.90500003 -3.1964534e+38
-0.083604768 -0.35941431 0.90500003 -3.1965572e+38
-0.081880957 -0.35941431 0.90500003 -3.2097974e+38
-0.080157146 -0.35941431 0.90500003 -3.2231416e+38
-0.078433335 -0.35941431 0.90500003 -3.2363298e+38
-0.076709531 -0.35941431 0.90500003 -3.2495181e+38
-0.07498572 -0.35941431 0.90500003 -3.2494659e+38
-0.073261909 -0.35941431 0.90500003 -3.2361737e+38
-0.071538098 -0.35941431 0.90500003 -3.2228814e+38
-0.069814287 -0.35941431 0.90500003 -3.2227775e+38
-0.068090484 -0.35941431 0.90500003 -3.2095372e+38
-0.066366673 -0.35941431 0.90500003 -3.1961408e+38
-0.064642861 -0.35941431 0.90500003 -3.1829003e+38
-0.06291905 -0.35941431 0.90500003 -3.1697119e+38
-0.061195243 -0.35941431 0.90500003 -3.1564194e+38
-0.059471432 -0.35941431 0.90500003 -3.1564198e+38
-0.057747621 -0.35941431 0.90500003 -3.1431277e+38
-0.056023814 -0.35941431 0.90500003 -3.1431796e+38
-0.054300003 -0.35941431 0.90500003 -3.1431794e+38
-0.052576195 -0.35941431 0.90500003 -3.1431275e+38
-0.050852384 -0.35941431 0.90500003 -3.1564198e+38
-0.049128573 -0.35941431 0.90500003 -3.1829526e+38
-0.047404766 -0.35941431 0.90500003 -3.1829007e+38
-0.045680955 -0.35941431 0.90500003 -3.182797e+38
-0.043957144 -0.35941431 0.90500003 -3.1696086e+38
-0.042233337 -0.35941431 0.90500003 -3.1697123e+38
-0.040509526 -0.35941431 0.90500003 -3.1563676e+38
-0.038785718 -0.35941431 0.90500003 -3.1564715e+38
-0.037061907 -0.35941431 0.90500003 -3.1564196e+38
-0.035338096 -0.35941431 0.90500003 -3.1697114e+38
-0.033614289 -0.35941431 0.90500003 -3.1829512e+38
-0.031890478 -0.35941431 0.90500003 -3.1962433e+38
-0.030166669 -0.35941431 0.90500003 -3.1962429e+38
-0.02844286 -0.35941431 0.90500003 -3.1962431e+38
-0.026807621 -0.36060575 0.90800005 -3.2095875e+38
-0.025078097 -0.36060575 0.90800005 -3.2096402e+38
-0.023348574 -0.36060575 0.90800005 -3.1963487e+38
-0.02161905 -0.36060575 0.90800005 -3.1965051e+38
-0.019889524 -0.36060575 0.90800005 -3.1831094e+38
-0.01816 -0.36060575 0.90800005 -3.1830571e+38
-0.016430477 -0.36060575 0.90800005 -3.1831086e+38
-0.014700953 -0.36060575 0.90800005 -3.1832644e+38
-0.012971429 -0.36060575 0.90800005 -3.1831084e+38
-0.011241905 -0.36060575 0.90800005 -3.1962964e+38
-0.0095123816 -0.36060575 0.90800005 -3.1962441e+38
-0.0077828579 -0.36060575 0.90800005 -3.2095362e+38
-0.0060533336 -0.36060575 0.90800005 -3.1830033e+38
0.025693335 -0.26132002 0.65800005 -2.9693918e+38
0.026864763 -0.26052573 0.65600002 -3.0227674e+38
0.027985716 -0.2593343 0.65300006 -3.0364217e+38
0.028692383 -0.25456858 0.64100003 -3.049871e+38
0.029913336 -0.25456858 0.64100003 -3.0498201e+38
0.031134287 -0.25456858 0.64100003 -3.049613e+38
0.032304764 -0.25417143 0.64000005 -3.1294711e+38
0.033471432 -0.25377432 0.63900006 -3.2228284e+38
0.034525715 -0.25258288 0.63600004 -3.355803e+38
0.054513335 -0.24980287 0.62900001 -3.316348e+38
0.055711433 -0.24980287 0.62900001 -3.3165009e+38
0.056909528 -0.24980287 0.62900001 -3.3302096e+38
0.081514291 -0.25178859 0.634 -3.3834319e+38
0.082721911 -0.25178859 0.634 -3.3833801e+38
0.084061913 -0.25218573 0.63500005 -3.3833284e+38
0.085271433 -0.25218573 0.63500005 -3.3833286e+38
0.08648096 -0.25218573 0.63500005 -3.3966207e+38
0.10422858 -0.25417143 0.64000005 -3.356899e+38
0.10561239 -0.25456858 0.64100003 -3.2635945e+38
0.10683334 -0.25456858 0.64100003 -3.1706519e+38
0.1080543 -0.25456858 0.64100003 -3.2637492e+38
0.10927524 -0.25456858 0.64100003 -3.356899e+38
0.11066858 -0.25496572 0.64200002 -3.3966201e+38
0.1265143 -0.2573486 0.648 -3.396411e+38
0.12814286 -0.25814289 0.65000004 -3.3830672e+38
0.12958001 -0.25854 0.65100002 -3.369827e+38
0.13102096 -0.25893715 0.65200001 -3.3565345e+38
-2.5762734 -2.2603669 5.7190003 -3.2503521e+38
-2.608443 -2.2983096 5.8150001 -3.2236643e+38
-2.5973668 -2.2983096 5.8150001 -3.1970807e+38
-2.5435934 -2.2603669 5.7190003 -3.2368547e+38
-2.5327001 -2.2603669 5.7190003 -3.2638034e+38
-2.5218067 -2.2603669 5.7190003 -3.2906482e+38
-2.5109136 -2.2603669 5.7190003 -3.3039406e+38
-2.5000203 -2.2603669 5.7190003 -3.3438179e+38
-2.4891269 -2.2603669 5.7190003 -3.3836951e+38
-2.4782336 -2.2603669 5.7190003 -3.3837477e+38
-2.4673402 -2.2603669 5.7190003 -3.3839034e+38
-0.16967145 -0.21145239 0.53500003 -3.0657241e+38
-0.16833715 -0.21105716 0.53400004 -3.2900247e+38
-0.12679334 -0.21303335 0.53900003 -3.3968288e+38
-0.12576668 -0.21303335 0.53900003 -3.3835363e+38
-0.095682867 -0.21698573 0.54900002 -3.3967237e+38
-0.094637148 -0.21698573 0.54900002 -3.370139e+38
-0.093761913 -0.21738097 0.55000001 -3.383431e+38
-0.093051434 -0.21817145 0.55200005 -3.3833789e+38
-0.087057151 -0.21896192 0.55400002 -3.3962546e+38
-0.083891436 -0.21896192 0.55400002 -3.3960988e+38
-0.082985722 -0.21935716 0.55500001 -3.3695143e+38
-0.082076199 -0.2197524 0.55600005 -3.356222e+38
-0.081308573 -0.22054288 0.55800003 -3.3429814e+38
-0.080245718 -0.22054288 0.55800003 -3.3695137e+38
-0.079324767 -0.22093812 0.55900002 -3.3961501e+38
-0.078260005 -0.22093812 0.55900002 -3.3961504e+38
-0.077195242 -0.22093812 0.55900002 -3.3828061e+38
-0.07613048 -0.22093812 0.55900002 -3.3695139e+38
-0.075200006 -0.22133335 0.56 -3.3427727e+38
-0.074265718 -0.22172859 0.56100005 -3.2894472e+38
-0.073458098 -0.22251906 0.56300002 -3.2228814e+38
-0.072514288 -0.22291429 0.56400001 -3.2093808e+38
-0.071440004 -0.22291429 0.56400001 -3.1957766e+38
-0.070365719 -0.22291429 0.56400001 -3.2089129e+38
-0.069414288 -0.22330953 0.565 -3.2094327e+38
-0.068338096 -0.22330953 0.565 -3.2097451e+38
-0.067261912 -0.22330953 0.565 -3.2097976e+38
-0.093947627 -0.35769051 0.90500003 -3.2496748e+38
-0.092223816 -0.35769051 0.90500003 -3.2363828e+38
-0.090500005 -0.35769051 0.90500003 -3.2230903e+38
-0.088776194 -0.35769051 0.90500003 -3.2229862e+38
-0.08705239 -0.35769051 0.90500003 -3.222986e+38
-0.085328579 -0.35769051 0.90500003 -3.2230897e+38
-0.083604768 -0.35769051 0.90500003 -3.2097451e+38
-0.081880957 -0.35769051 0.90500003 -3.2229852e+38
-0.080157146 -0.35769051 0.90500003 -3.2363294e+38
-0.078433335 -0.35769051 0.90500003 -3.2495698e+38
-0.076709531 -0.35769051 0.90500003 -3.2628101e+38
-0.07498572 -0.35769051 0.90500003 -3.2759986e+38
-0.073261909 -0.35769051 0.90500003 -3.2759986e+38
-0.071538098 -0.35769051 0.90500003 -3.2493621e+38
-0.069814287 -0.35769051 0.90500003 -3.2227775e+38
-0.068090484 -0.35769051 0.90500003 -3.2095374e+38
-0.066366673 -0.35769051 0.90500003 -3.196193e+38
-0.064857148 -0.35887623 0.90800005 -3.1829005e+38
-0.06291905 -0.35769051 0.90500003 -3.1564715e+38
-0.061195243 -0.35769051 0.90500003 -3.1565753e+38
-0.059471432 -0.35769051 0.90500003 -3.1430756e+38
-0.057747621 -0.35769051 0.90500003 -3.1430239e+38
-0.056023814 -0.35769051 0.90500003 -3.1297833e+38
-0.054300003 -0.35769051 0.90500003 -3.1431275e+38
-0.052576195 -0.35769051 0.90500003 -3.1430756e+38
-0.050852384 -0.35769051 0.90500003 -3.1696601e+38
-0.049128573 -0.35769051 0.90500003 -3.1829005e+38
-0.047404766 -0.35769051 0.90500003 -3.1960889e+38
-0.045680955 -0.35769051 0.90500003 -3.1961408e+38
-0.043957144 -0.35769051 0.90500003 -3.1695563e+38
-0.042233337 -0.35769051 0.90500003 -3.1430236e+38
-0.040509526 -0.35769051 0.90500003 -3.1429196e+38
-0.038914289 -0.35887623 0.90800005 -3.1430234e+38
-0.037061907 -0.35769051 0.90500003 -3.1430236e+38
-0.035455242 -0.35887623 0.90800005 -3.129731e+38
-0.033614289 -0.35769051 0.90500003 -3.1696076e+38
-0.031890478 -0.35769051 0.90500003 -3.2095362e+38
-0.030166669 -0.35769051 0.90500003 -3.209536e+38
-0.02844286 -0.35769051 0.90500003 -3.209536e+38
-0.026807621 -0.35887623 0.90800005 -3.2361205e+38
-0.025078097 -0.35887623 0.90800005 -3.2494651e+38
-0.023348574 -0.35887623 0.90800005 -3.2361733e+38
-0.02161905 -0.35887623 0.90800005 -3.209641e+38
-0.019889524 -0.35887623 0.90800005 -3.2095378e+38
-0.01816 -0.35887623 0.90800005 -3.1963489e+38
-0.016430477 -0.35887623 0.90800005 -3.1831082e+38
-0.014700953 -0.35887623 0.90800005 -3.1698159e+38
-0.012971429 -0.35887623 0.90800005 -3.1697121e+38
-0.011241905 -0.35887623 0.90800005 -3.1697116e+38
-0.0095123816 -0.35887623 0.90800005 -3.1829516e+38
-0.0078000007 -0.35966671 0.91000003 -3.1962952e+38
-0.0060666669 -0.35966671 0.91000003 -3.1963467e+38
-0.0043333336 -0.35966671 0.91000003 -3.1830546e+38
-0.0026000002 -0.35966671 0.91000003 -3.1963992e+38
0.025693335 -0.26006669 0.65800005 -3.0501842e+38
0.026619049 -0.25690478 0.65000004 -3.0100471e+38
0.027857145 -0.25690478 0.65000004 -3.0366828e+38
0.028692383 -0.25334764 0.64100003 -3.049872e+38
0.029820003 -0.25255716 0.63900006 -3.0896977e+38
0.031037144 -0.25255716 0.63900006 -3.1161789e+38
0.032254286 -0.25255716 0.63900006 -3.2092774e+38
0.033314288 -0.25137144 0.63600004 -3.2892397e+38
0.050838098 -0.24820954 0.62800002 -3.3708744e+38
0.051951431 -0.2478143 0.62700003 -2.9188288e+38
0.053145718 -0.2478143 0.62700003 -3.1303589e+38
0.054513335 -0.24860477 0.62900001 -3.3431386e+38
0.055711433 -0.24860477 0.62900001 -3.396411e+38
0.081514291 -0.25058097 0.634 -3.3833801e+38
0.082721911 -0.25058097 0.634 -3.3834325e+38
0.084061913 -0.2509762 0.63500005 -3.3833805e+38
0.085405722 -0.25137144 0.63600004 -3.3966209e+38
0.10422858 -0.2529524 0.64000005 -3.3429299e+38
0.10544763 -0.2529524 0.64000005 -3.1432865e+38
0.10683334 -0.25334764 0.64100003 -2.9441629e+38
0.1080543 -0.25334764 0.64100003 -3.1574637e+38
0.10927524 -0.25334764 0.64100003 -3.3567956e+38
0.12814286 -0.25690478 0.65000004 -3.3964112e+38
0.12958001 -0.25730002 0.65100002 -3.3698266e+38
0.13102096 -0.25769526 0.65200001 -3.343294e+38
-2.6195192 -2.2872336 5.8150001 -3.2106318e+38
-2.608443 -2.2872336 5.8150001 -3.2103205e+38
-2.5973668 -2.2872336 5.8150001 -3.1968734e+38
-2.5862906 -2.2872336 5.8150001 -3.2236665e+38
-2.5752144 -2.2872336 5.8150001 -3.250719e+38
-2.5218067 -2.2494736 5.7190003 -3.2772522e+38
-2.5109136 -2.2494736 5.7190003 -3.3171812e+38
-2.5000203 -2.2494736 5.7190003 -3.343766e+38
-2.4486496 -2.2128935 5.6260004 -3.3702471e+38
-2.4379334 -2.2128935 5.6260004 -3.370455e+38
-2.4673402 -2.2494736 5.7190003 -3.383903e+38
-0.16998859 -0.21082668 0.53600001 -3.210326e+38
-0.16896763 -0.21082668 0.53600001 -3.3701394e+38
-0.084042862 -0.21830001 0.55500001 -3.3961508e+38
-0.083135247 -0.21869335 0.55600005 -3.3827544e+38
-0.082223818 -0.21908668 0.55700004 -3.3695139e+38
-0.081308573 -0.21948001 0.55800003 -3.3561695e+38
-0.080389529 -0.21987335 0.55900002 -3.3562212e+38
-0.079324767 -0.21987335 0.55900002 -3.3695135e+38
-0.078260005 -0.21987335 0.55900002 -3.3695133e+38
-0.077333339 -0.22026668 0.56 -3.3694092e+38
-0.076266669 -0.22026668 0.56 -3.3295841e+38
-0.075334288 -0.22066002 0.56100005 -3.3027914e+38
-0.074265718 -0.22066002 0.56100005 -3.2628621e+38
-0.073458098 -0.22144668 0.56300002 -3.222829e+38
-0.072514288 -0.22184001 0.56400001 -3.2091727e+38
-0.071440004 -0.22184001 0.56400001 -3.1954652e+38
-0.070365719 -0.22184001 0.56400001 -3.1826403e+38
-0.069291435 -0.22184001 0.56400001 -3.1831599e+38
-0.068217151 -0.22184001 0.56400001 -3.1831601e+38
-0.067261912 -0.22223336 0.565 -3.1965051e+38
-0.093947627 -0.35596669 0.90500003 -3.236383e+38
-0.092223816 -0.35596669 0.90500003 -3.2097467e+38
-0.090500005 -0.35596669 0.90500003 -3.1964023e+38
-0.088776194 -0.35596669 0.90500003 -3.2096942e+38
-0.08705239 -0.35596669 0.90500003 -3.2096938e+38
-0.085328579 -0.35596669 0.90500003 -3.2230373e+38
-0.083604768 -0.35596669 0.90500003 -3.2362773e+38
-0.081880957 -0.35596669 0.90500003 -3.2362767e+38
-0.080157146 -0.35596669 0.90500003 -3.2362769e+38
-0.078693338 -0.35714668 0.90800005 -3.2495692e+38
-0.076709531 -0.35596669 0.90500003 -3.2628617e+38
-0.07498572 -0.35596669 0.90500003 -3.262758e+38
-0.073261909 -0.35596669 0.90500003 -3.2627582e+38
-0.071538098 -0.35596669 0.90500003 -3.249414e+38
-0.069814287 -0.35596669 0.90500003 -3.2227777e+38
-0.068090484 -0.35596669 0.90500003 -3.2095374e+38
-0.066366673 -0.35596669 0.90500003 -3.196193e+38
-0.064642861 -0.35596669 0.90500003 -3.1830043e+38
-0.06291905 -0.35596669 0.90500003 -3.1698159e+38
-0.061195243 -0.35596669 0.90500003 -3.1697121e+38
-0.059471432 -0.35596669 0.90500003 -3.1695046e+38
-0.057747621 -0.35596669 0.90500003 -3.1563161e+38
-0.056023814 -0.35596669 0.90500003 -3.156264e+38
-0.054300003 -0.35596669 0.90500003 -3.169608e+38
-0.052576195 -0.35596669 0.90500003 -3.1695563e+38
-0.050852384 -0.35596669 0.90500003 -3.1829005e+38
-0.049128573 -0.35596669 0.90500003 -3.2094331e+38
-0.047404766 -0.35596669 0.90500003 -3.2227252e+38
-0.045680955 -0.35596669 0.90500003 -3.2360175e+38
-0.043957144 -0.35596669 0.90500003 -3.2094327e+38
-0.042373337 -0.35714668 0.90800005 -3.1828484e+38
-0.040643811 -0.35714668 0.90800005 -3.1695561e+38
-0.038914289 -0.35714668 0.90800005 -3.156264e+38
-0.037184764 -0.35714668 0.90800005 -3.156264e+38
-0.035455242 -0.35714668 0.90800005 -3.1562121e+38
-0.033725716 -0.35714668 0.90800005 -3.1828484e+38
-0.031890478 -0.35596669 0.90500003 -3.1961926e+38
-0.030166669 -0.35596669 0.90500003 -3.1961926e+38
-0.02844286 -0.35596669 0.90500003 -3.1961924e+38
-0.026866669 -0.35793334 0.91000003 -3.2095362e+38
-0.025133334 -0.35793334 0.91000003 -3.2095883e+38
-0.023348574 -0.35714668 0.90800005 -3.2095883e+38
-0.02161905 -0.35714668 0.90800005 -3.2095368e+38
-0.019933335 -0.35793334 0.91000003 -3.1962968e+38
-0.018200001 -0.35793334 0.91000003 -3.1963485e+38
-0.016430477 -0.35714668 0.90800005 -3.1830559e+38
-0.014733334 -0.35793334 0.91000003 -3.1697638e+38
-0.013000001 -0.35793334 0.91000003 -3.1697638e+38
-0.011266667 -0.35793334 0.91000003 -3.1830556e+38
-0.0095333336 -0.35793334 0.91000003 -3.2095877e+38
-0.0078000007 -0.35793334 0.91000003 -3.2361716e+38
-0.0060666669 -0.35793334 0.91000003 -3.2228785e+38
-0.0043333336 -0.35793334 0.91000003 -3.222827e+38
-0.0026000002 -0.35793334 0.91000003 -3.2228793e+38
0.025420001 -0.25606 0.65100002 -3.0501324e+38
0.026619049 -0.25566667 0.65000004 -3.0500805e+38
0.02777143 -0.25488001 0.648 -3.076561e+38
0.02864762 -0.25173336 0.64000005 -3.1030422e+38
0.029820003 -0.25134 0.63900006 -3.1428675e+38
0.030988574 -0.25094667 0.63800001 -3.1692969e+38
0.032102861 -0.25016001 0.63600004 -3.2624471e+38
0.033261906 -0.24976668 0.63500005 -3.3551316e+38
0.052034289 -0.24701335 0.62800002 -3.1967142e+38
0.053315241 -0.24740668 0.62900001 -3.3033103e+38
0.10041429 -0.25134 0.63900006 -3.1967641e+38
0.10179048 -0.25173336 0.64000005 -2.998523e+38
0.10300953 -0.25173336 0.64000005 -2.7566665e+38
0.10422858 -0.25173336 0.64000005 -2.5308011e+38
0.10544763 -0.25173336 0.64000005 -2.4633526e+38
0.10683334 -0.25212669 0.64100003 -2.4114844e+38
0.1080543 -0.25212669 0.64100003 -2.9043918e+38
0.12938096 -0.25566667 0.65000004 -3.3964627e+38
0.13102096 -0.25645334 0.65200001 -3.3831706e+38
-2.6195192 -2.2761574 5.8150001 -3.1702871e+38
-2.6533003 -2.3153002 5.9150004 -3.1835301e+38
-2.5973668 -2.2761574 5.8150001 -3.1968225e+38
-2.5862906 -2.2761574 5.8150001 -3.2234592e+38
-2.5752144 -2.2761574 5.8150001 -3.2370113e+38
-2.5218067 -2.2385802 5.7190003 -3.2769405e+38
-2.5109136 -2.2385802 5.7190003 -3.3170771e+38
-2.5000203 -2.2385802 5.7190003 -3.3304216e+38
-2.4486496 -2.2021773 5.6260004 -3.34387e+38
-2.4379334 -2.2021773 5.6260004 -3.3705588e+38
-2.4272172 -2.2021773 5.6260004 -3.3839032e+38
-0.16998859 -0.20980573 0.53600001 -3.3433514e+38
-0.085100003 -0.21724287 0.55500001 -3.3829104e+38
-0.084042862 -0.21724287 0.55500001 -3.3829104e+38
-0.083284765 -0.21802573 0.55700004 -3.3828064e+38
-0.082371436 -0.21841715 0.55800003 -3.3695658e+38
-0.081454292 -0.21880859 0.55900002 -3.3562216e+38
-0.080389529 -0.21880859 0.55900002 -3.3429293e+38
-0.079466671 -0.21920002 0.56 -3.3296372e+38
-0.078400008 -0.21920002 0.56 -3.3428776e+38
-0.077333339 -0.21920002 0.56 -3.3429291e+38
-0.076402865 -0.21959144 0.56100005 -3.3031038e+38
-0.075334288 -0.21959144 0.56100005 -3.2630184e+38
-0.0743981 -0.21998288 0.56200004 -3.2495698e+38
-0.07358858 -0.22076572 0.56400001 -3.2227767e+38
-0.072642863 -0.22115716 0.565 -3.2090684e+38
-0.071440004 -0.22076572 0.56400001 -3.1958285e+38
-0.070490479 -0.22115716 0.565 -3.1695559e+38
-0.069414288 -0.22115716 0.565 -3.1431794e+38
-0.068217151 -0.22076572 0.56400001 -3.1698682e+38
-0.095988579 -0.35541716 0.90800005 -3.1964538e+38
-0.094259053 -0.35541716 0.90800005 -3.2097463e+38
-0.092529528 -0.35541716 0.90800005 -3.1963504e+38
-0.090500005 -0.35424289 0.90500003 -3.1698173e+38
-0.089070484 -0.35541716 0.90800005 -3.1831613e+38
-0.087340958 -0.35541716 0.90800005 -3.1964532e+38
-0.085611433 -0.35541716 0.90800005 -3.2230895e+38
-0.083604768 -0.35424289 0.90500003 -3.2496736e+38
-0.081880957 -0.35424289 0.90500003 -3.2496213e+38
-0.080422863 -0.35541716 0.90800005 -3.2362771e+38
-0.078693338 -0.35541716 0.90800005 -3.2494655e+38
-0.076963812 -0.35541716 0.90800005 -3.2628099e+38
-0.07498572 -0.35424289 0.90500003 -3.2627582e+38
-0.073261909 -0.35424289 0.90500003 -3.2494663e+38
-0.071538098 -0.35424289 0.90500003 -3.2362264e+38
-0.069814287 -0.35424289 0.90500003 -3.2228303e+38
-0.068090484 -0.35424289 0.90500003 -3.209538e+38
-0.066366673 -0.35424289 0.90500003 -3.1962453e+38
-0.064857148 -0.35541716 0.90800005 -3.1831084e+38
-0.063127622 -0.35541716 0.90800005 -3.1697123e+38
-0.061195243 -0.35424289 0.90500003 -3.1828488e+38
-0.059668574 -0.35541716 0.90800005 -3.1829007e+38
-0.057939053 -0.35541716 0.90800005 -3.1829526e+38
-0.056209527 -0.35541716 0.90800005 -3.1829005e+38
-0.054480005 -0.35541716 0.90800005 -3.1960887e+38
-0.052750479 -0.35541716 0.90800005 -3.1961928e+38
-0.051020958 -0.35541716 0.90800005 -3.209485e+38
-0.049291432 -0.35541716 0.90800005 -3.2228293e+38
-0.047561906 -0.35541716 0.90800005 -3.2494136e+38
-0.045832384 -0.35541716 0.90800005 -3.262602e+38
-0.044102859 -0.35541716 0.90800005 -3.2359656e+38
-0.042373337 -0.35541716 0.90800005 -3.2094329e+38
-0.040643811 -0.35541716 0.90800005 -3.1960887e+38
-0.038914289 -0.35541716 0.90800005 -3.1695561e+38
-0.037184764 -0.35541716 0.90800005 -3.1828486e+38
-0.035455242 -0.35541716 0.90800005 -3.1828484e+38
-0.033725716 -0.35541716 0.90800005 -3.1828484e+38
-0.031996194 -0.35541716 0.90800005 -3.1828484e+38
-0.030266669 -0.35541716 0.90800005 -3.1828484e+38
-0.028537145 -0.35541716 0.90800005 -3.182952e+38
-0.026866669 -0.35620001 0.91000003 -3.1829518e+38
-0.025133334 -0.35620001 0.91000003 -3.1697114e+38
-0.023400001 -0.35620001 0.91000003 -3.1962962e+38
-0.021666668 -0.35620001 0.91000003 -3.2095887e+38
-0.019933335 -0.35620001 0.91000003 -3.1962964e+38
-0.018200001 -0.35620001 0.91000003 -3.1830039e+38
-0.016466668 -0.35620001 0.91000003 -3.1829518e+38
-0.014733334 -0.35620001 0.91000003 -3.1697114e+38
-0.013000001 -0.35620001 0.91000003 -3.1830559e+38
-0.011266667 -0.35620001 0.91000003 -3.1830554e+38
-0.0095333336 -0.35620001 0.91000003 -3.2361724e+38
-0.0078000007 -0.35620001 0.91000003 -3.2760491e+38
-0.0060666669 -0.35620001 0.91000003 -3.2627564e+38
-0.0043333336 -0.35620001 0.91000003 -3.2494645e+38
-0.0026000002 -0.35620001 0.91000003 -3.2494649e+38
-0.00086666673 -0.35620001 0.91000003 -3.2361207e+38
0.025380954 -0.2544286 0.65000004 -3.0368414e+38
0.026537145 -0.25364572 0.648 -3.0766661e+38
0.02777143 -0.25364572 0.648 -3.1164391e+38
0.028692383 -0.25090572 0.64100003 -3.1563161e+38
0.029820003 -0.25012287 0.63900006 -3.1961934e+38
0.030988574 -0.24973145 0.63800001 -3.2228305e+38
0.032052383 -0.24855717 0.63500005 -3.3160847e+38
0.09935239 -0.2505143 0.64000005 -3.3160831e+38
0.10057144 -0.2505143 0.64000005 -2.9021495e+38
0.10179048 -0.2505143 0.64000005 -2.4758585e+38
0.10300953 -0.2505143 0.64000005 -2.0871078e+38
0.10422858 -0.2505143 0.64000005 -1.7027736e+38
0.10561239 -0.25090572 0.64100003 -1.7811771e+38
0.10683334 -0.25090572 0.64100003 -1.8640536e+38
0.10822286 -0.25129715 0.64200002 -2.6652325e+38
-2.469964 -2.0574648 5.2820001 -2.0086993e+38
-2.4980917 -2.0894058 5.3640003 -2.0087518e+38
-2.4878745 -2.0894058 5.3640003 -2.0353368e+38
-2.4776573 -2.0894058 5.3640003 -2.0752663e+38
-2.608443 -2.2650812 5.8150001 -3.1835317e+38
-2.5973668 -2.2650812 5.8150001 -3.2232523e+38
-2.5862906 -2.2650812 5.8150001 -3.2499921e+38
-2.5752144 -2.2650812 5.8150001 -3.289973e+38
-2.5218067 -2.2276869 5.7190003 -3.2902326e+38
-2.5109136 -2.2276869 5.7190003 -3.3037847e+38
-2.4593658 -2.1914611 5.6260004 -3.3172327e+38
-2.4486496 -2.1914611 5.6260004 -3.3307333e+38
-2.4379334 -2.1914611 5.6260004 -3.3573183e+38
-2.4272172 -2.1914611 5.6260004 -3.3839551e+38
-2.416501 -2.1914611 5.6260004 -3.3971959e+38
-0.085253336 -0.21657525 0.55600005 -3.3962548e+38
-0.084194288 -0.21657525 0.55600005 -3.3960988e+38
-0.083284765 -0.21696478 0.55700004 -3.3959948e+38
-0.082371436 -0.2173543 0.55800003 -3.3828061e+38
-0.081454292 -0.21774383 0.55900002 -3.369566e+38
-0.080533341 -0.21813335 0.56 -3.3562739e+38
-0.079466671 -0.21813335 0.56 -3.3429301e+38
-0.078400008 -0.21813335 0.56 -3.329638e+38
-0.077471435 -0.21852288 0.56100005 -3.3163971e+38
-0.076539055 -0.21891239 0.56200004 -3.2631752e+38
-0.075602859 -0.21930192 0.56300002 -3.2230899e+38
-0.074662864 -0.21969144 0.56400001 -3.1964005e+38
-0.073719054 -0.22008097 0.565 -3.1830554e+38
-0.072642863 -0.22008097 0.565 -3.1825352e+38
-0.071440004 -0.21969144 0.56400001 -3.182536e+38
-0.070490479 -0.22008097 0.565 -3.1695042e+38
-0.069414288 -0.22008097 0.565 -3.1563683e+38
-0.095988579 -0.35368764 0.90800005 -3.1964536e+38
-0.094259053 -0.35368764 0.90800005 -3.2229864e+38
-0.092529528 -0.35368764 0.90800005 -3.19635e+38
-0.09080001 -0.35368764 0.90800005 -3.1831094e+38
-0.089070484 -0.35368764 0.90800005 -3.1964013e+38
-0.087340958 -0.35368764 0.90800005 -3.2096936e+38
-0.085611433 -0.35368764 0.90800005 -3.2230376e+38
-0.083881907 -0.35368764 0.90800005 -3.2364335e+38
-0.082152389 -0.35368764 0.90800005 -3.2363811e+38
-0.080422863 -0.35368764 0.90800005 -3.2363292e+38
-0.078693338 -0.35368764 0.90800005 -3.2362254e+38
-0.076963812 -0.35368764 0.90800005 -3.2362256e+38
-0.075234294 -0.35368764 0.90800005 -3.2361737e+38
-0.073504768 -0.35368764 0.90800005 -3.2361745e+38
-0.071775243 -0.35368764 0.90800005 -3.2228828e+38
-0.070045717 -0.35368764 0.90800005 -3.222779e+38
-0.068090484 -0.35251907 0.90500003 -3.2094865e+38
-0.066366673 -0.35251907 0.90500003 -3.1961938e+38
-0.064857148 -0.35368764 0.90800005 -3.1962451e+38
-0.063127622 -0.35368764 0.90800005 -3.1961932e+38
-0.0613981 -0.35368764 0.90800005 -3.1961932e+38
-0.059668574 -0.35368764 0.90800005 -3.1962449e+38
-0.057939053 -0.35368764 0.90800005 -3.1962447e+38
-0.056209527 -0.35368764 0.90800005 -3.1829524e+38
-0.054480005 -0.35368764 0.90800005 -3.1829522e+38
-0.052750479 -0.35368764 0.90800005 -3.1829524e+38
-0.051020958 -0.35368764 0.90800005 -3.1962447e+38
-0.049291432 -0.35368764 0.90800005 -3.2228812e+38
-0.047561906 -0.35368764 0.90800005 -3.2360175e+38
-0.045832384 -0.35368764 0.90800005 -3.249154e+38
-0.044102859 -0.35368764 0.90800005 -3.2226733e+38
-0.042373337 -0.35368764 0.90800005 -3.1961406e+38
-0.040643811 -0.35368764 0.90800005 -3.1961926e+38
-0.038914289 -0.35368764 0.90800005 -3.1828484e+38
-0.037184764 -0.35368764 0.90800005 -3.1695561e+38
-0.035455242 -0.35368764 0.90800005 -3.1695561e+38
-0.033725716 -0.35368764 0.90800005 -3.1562636e+38
-0.031996194 -0.35368764 0.90800005 -3.1562636e+38
-0.030266669 -0.35368764 0.90800005 -3.1564194e+38
-0.028537145 -0.35368764 0.90800005 -3.1564713e+38
-0.026866669 -0.35446668 0.91000003 -3.1564711e+38
-0.025133334 -0.35446668 0.91000003 -3.1697116e+38
-0.023400001 -0.35446668 0.91000003 -3.1830041e+38
-0.021666668 -0.35446668 0.91000003 -3.1962443e+38
-0.019933335 -0.35446668 0.91000003 -3.1962441e+38
-0.018200001 -0.35446668 0.91000003 -3.1829516e+38
-0.016466668 -0.35446668 0.91000003 -3.1830033e+38
-0.014733334 -0.35446668 0.91000003 -3.1962958e+38
-0.013000001 -0.35446668 0.91000003 -3.1962958e+38
-0.011266667 -0.35446668 0.91000003 -3.2095881e+38
-0.0095333336 -0.35446668 0.91000003 -3.2361726e+38
-0.0078000007 -0.35446668 0.91000003 -3.2627574e+38
-0.0060666669 -0.35446668 0.91000003 -3.2627574e+38
-0.0043333336 -0.35446668 0.91000003 -3.2627578e+38
-0.0025942859 -0.35368764 0.90800005 -3.2494657e+38
-0.00086666673 -0.35446668 0.91000003 -3.2361733e+38
0.00086666673 -0.35446668 0.91000003 -3.2095885e+38
0.02414286 -0.25319049 0.65000004 -2.9835692e+38
0.025380954 -0.25319049 0.65000004 -3.0235501e+38
0.026537145 -0.25241145 0.648 -3.0501347e+38
0.02777143 -0.25241145 0.648 -3.1032517e+38
0.028737145 -0.2500743 0.64200002 -3.1431808e+38
0.029820003 -0.24890573 0.63900006 -3.1962982e+38
0.030891431 -0.24773715 0.63600004 -3.2363836e+38
0.032001905 -0.24695811 0.634 -3.3161898e+38
0.033157144 -0.24656859 0.63300002 -3.3963086e+38
0.095695242 -0.24929525 0.64000005 -3.1837899e+38
0.096914291 -0.24929525 0.64000005 -2.9320641e+38
0.09813334 -0.24929525 0.64000005 -2.7170995e+38
0.09935239 -0.24929525 0.64000005 -2.518283e+38
0.10057144 -0.24929525 0.64000005 -2.3291759e+38
0.10179048 -0.24929525 0.64000005 -2.1549667e+38
0.10300953 -0.24929525 0.64000005 -2.0212054e+38
0.10439143 -0.24968478 0.64100003 -1.8875038e+38
0.10544763 -0.24929525 0.64000005 -1.9541209e+38
0.10750001 -0.25124288 0.64500004 -2.0206466e+38
0.10872858 -0.25124288 0.64500004 -2.6232248e+38
0.11012763 -0.25163239 0.64600003 -3.210112e+38
0.11135811 -0.25163239 0.64600003 -3.3699844e+38
-2.5083086 -2.0791888 5.3640003 -1.9820107e+38
-2.6201088 -2.1807449 5.6260004 -1.9422381e+38
-2.4878745 -2.0791888 5.3640003 -1.9954597e+38
-2.4776573 -2.0791888 5.3640003 -2.0486814e+38
-2.6533003 -2.2927668 5.9150004 -3.1838438e+38
-2.6420336 -2.2927668 5.9150004 -3.2500965e+38
-2.5862906 -2.254005 5.8150001 -3.2897649e+38
-2.5752144 -2.254005 5.8150001 -3.3299532e+38
-2.5218067 -2.2167935 5.7190003 -3.3168686e+38
-2.5109136 -2.2167935 5.7190003 -3.2904922e+38
-2.5000203 -2.2167935 5.7190003 -3.3040443e+38
-2.4486496 -2.1807449 5.6260004 -3.3173372e+38
-2.4379334 -2.1807449 5.6260004 -3.3572665e+38
-2.4272172 -2.1807449 5.6260004 -3.3839034e+38
-2.416501 -2.1807449 5.6260004 -3.3971961e+38
-2.4057848 -2.1807449 5.6260004 -3.3971961e+38
-0.082371436 -0.21629144 0.55800003 -3.3960465e+38
-0.081454292 -0.21667907 0.55900002 -3.3695141e+38
-0.080533341 -0.21706668 0.56 -3.3695662e+38
-0.079466671 -0.21706668 0.56 -3.3562741e+38
-0.078540005 -0.2174543 0.56100005 -3.32969e+38
-0.077609532 -0.21784192 0.56200004 -3.2898123e+38
-0.076539055 -0.21784192 0.56200004 -3.2366426e+38
-0.075602859 -0.21822953 0.56300002 -3.1699208e+38
-0.074662864 -0.21861716 0.56400001 -3.1565238e+38
-0.073719054 -0.21900478 0.565 -3.1294192e+38
-0.072642863 -0.21900478 0.565 -3.1422436e+38
-0.071566671 -0.21900478 0.565 -3.1559521e+38
-0.070490479 -0.21900478 0.565 -3.1695048e+38
-0.069414288 -0.21900478 0.565 -3.169765e+38
-0.097933337 -0.35273334 0.91000003 -3.1831613e+38
-0.095988579 -0.35195813 0.90800005 -3.2096938e+38
-0.094259053 -0.35195813 0.90800005 -3.2229343e+38
-0.092529528 -0.35195813 0.90800005 -3.2095382e+38
-0.09080001 -0.35195813 0.90800005 -3.1963496e+38
-0.089070484 -0.35195813 0.90800005 -3.2095895e+38
-0.087340958 -0.35195813 0.90800005 -3.2229337e+38
-0.085611433 -0.35195813 0.90800005 -3.2229856e+38
-0.083881907 -0.35195813 0.90800005 -3.2230371e+38
-0.082152389 -0.35195813 0.90800005 -3.2363292e+38
-0.080422863 -0.35195813 0.90800005 -3.2362771e+38
-0.078693338 -0.35195813 0.90800005 -3.2229327e+38
-0.076963812 -0.35195813 0.90800005 -3.2096406e+38
-0.075234294 -0.35195813 0.90800005 -3.2095889e+38
-0.073504768 -0.35195813 0.90800005 -3.2096414e+38
-0.071775243 -0.35195813 0.90800005 -3.2095901e+38
-0.070045717 -0.35195813 0.90800005 -3.209538e+38
-0.068316191 -0.35195813 0.90800005 -3.2094859e+38
-0.066586673 -0.35195813 0.90800005 -3.1961934e+38
-0.064857148 -0.35195813 0.90800005 -3.2094853e+38
-0.063127622 -0.35195813 0.90800005 -3.2095372e+38
-0.0613981 -0.35195813 0.90800005 -3.2095372e+38
-0.059668574 -0.35195813 0.90800005 -3.2095891e+38
-0.057939053 -0.35195813 0.90800005 -3.1962966e+38
-0.056209527 -0.35195813 0.90800005 -3.1830041e+38
-0.054480005 -0.35195813 0.90800005 -3.1830559e+38
-0.052750479 -0.35195813 0.90800005 -3.1697636e+38
-0.051020958 -0.35195813 0.90800005 -3.1962964e+38
-0.049400002 -0.35273334 0.91000003 -3.2094846e+38
-0.047561906 -0.35195813 0.90800005 -3.2225173e+38
-0.045832384 -0.35195813 0.90800005 -3.2359134e+38
-0.044102859 -0.35195813 0.90800005 -3.2093289e+38
-0.042373337 -0.35195813 0.90800005 -3.1829001e+38
-0.040643811 -0.35195813 0.90800005 -3.1963479e+38
-0.038914289 -0.35195813 0.90800005 -3.1962441e+38
-0.037184764 -0.35195813 0.90800005 -3.1696078e+38
-0.035455242 -0.35195813 0.90800005 -3.143023e+38
-0.033725716 -0.35195813 0.90800005 -3.1297308e+38
-0.031996194 -0.35195813 0.90800005 -3.116594e+38
-0.030266669 -0.35195813 0.90800005 -3.1166979e+38
-0.028537145 -0.35195813 0.90800005 -3.1166979e+38
-0.026866669 -0.35273334 0.91000003 -3.1433346e+38
-0.025133334 -0.35273334 0.91000003 -3.1697634e+38
-0.023400001 -0.35273334 0.91000003 -3.1829518e+38
-0.021666668 -0.35273334 0.91000003 -3.1829516e+38
-0.019933335 -0.35273334 0.91000003 -3.1829512e+38
-0.018200001 -0.35273334 0.91000003 -3.1830031e+38
-0.016466668 -0.35273334 0.91000003 -3.1964512e+38
-0.014733334 -0.35273334 0.91000003 -3.2096917e+38
-0.013000001 -0.35273334 0.91000003 -3.2228804e+38
-0.011266667 -0.35273334 0.91000003 -3.2361726e+38
-0.0095333336 -0.35273334 0.91000003 -3.2361726e+38
-0.0078000007 -0.35273334 0.91000003 -3.2361728e+38
-0.0060666669 -0.35273334 0.91000003 -3.2494651e+38
-0.0043238099 -0.35195813 0.90800005 -3.2628095e+38
-0.0025942859 -0.35195813 0.90800005 -3.2494655e+38
-0.00086666673 -0.35273334 0.91000003 -3.2229325e+38
0.00086666673 -0.35273334 0.91000003 -3.2096919e+38
0.02414286 -0.25195241 0.65000004 -2.9703287e+38
0.025302859 -0.25117716 0.648 -2.9970694e+38
0.026537145 -0.25117716 0.648 -3.0235503e+38
0.027728572 -0.25078955 0.64700001 -3.0767194e+38
0.028737145 -0.24885145 0.64200002 -3.1297853e+38
0.029820003 -0.24768859 0.63900006 -3.1961433e+38
0.030842859 -0.24613811 0.63500005 -3.2494688e+38
0.031951431 -0.24536288 0.63300002 -3.3160344e+38
0.033104762 -0.24497525 0.63200003 -3.3697238e+38
0.094476193 -0.2480762 0.64000005 -3.356064e+38
0.095695242 -0.2480762 0.64000005 -2.8229684e+38
0.096914291 -0.2480762 0.64000005 -2.2899226e+38
0.097980008 -0.24768859 0.63900006 -1.9942168e+38
0.09935239 -0.2480762 0.64000005 -1.703031e+38
0.10041429 -0.24768859 0.63900006 -1.7678809e+38
0.10163143 -0.24768859 0.63900006 -1.8351699e+38
0.10284857 -0.24768859 0.63900006 -1.9552642e+38
0.10406572 -0.24768859 0.63900006 -2.0741699e+38
0.10544763 -0.2480762 0.64000005 -2.127237e+38
0.10750001 -0.25001431 0.64500004 -2.1821804e+38
0.10889715 -0.25040191 0.64600003 -2.5703654e+38
0.1102981 -0.25078955 0.64700001 -2.9567261e+38
0.11153048 -0.25078955 0.64700001 -3.2636967e+38
-2.5083086 -2.0689716 5.3640003 -1.9820622e+38
-2.6201088 -2.1700287 5.6260004 -1.9555821e+38
-2.5268345 -2.1013715 5.4480004 -1.9822709e+38
-2.5164573 -2.1013715 5.4480004 -2.008908e+38
-2.5060802 -2.1013715 5.4480004 -2.0753698e+38
-2.608443 -2.2429287 5.8150001 -3.0641618e+38
-2.5973668 -2.2429287 5.8150001 -3.2237199e+38
-2.5862906 -2.2429287 5.8150001 -3.2634395e+38
-2.5752144 -2.2429287 5.8150001 -3.3167644e+38
-2.5218067 -2.2059002 5.7190003 -3.3168682e+38
-2.5109136 -2.2059002 5.7190003 -3.3170246e+38
-2.4593658 -2.1700287 5.6260004 -3.3038885e+38
-2.4486496 -2.1700287 5.6260004 -3.3038893e+38
-2.4379334 -2.1700287 5.6260004 -3.3439225e+38
-2.4272172 -2.1700287 5.6260004 -3.3839036e+38
-2.416501 -2.1700287 5.6260004 -3.3971444e+38
-0.17170954 -0.20635715 0.53500003 -3.2519205e+38
-0.087214291 -0.21407144 0.55500001 -3.3962558e+38
-0.086157151 -0.21407144 0.55500001 -3.3962039e+38
-0.085253336 -0.21445715 0.55600005 -3.3828597e+38
-0.084345721 -0.21484287 0.55700004 -3.3828076e+38
-0.083284765 -0.21484287 0.55700004 -3.3960473e+38
-0.082371436 -0.21522859 0.55800003 -3.3828061e+38
-0.081454292 -0.2156143 0.55900002 -3.3695141e+38
-0.080389529 -0.2156143 0.55900002 -3.3562737e+38
-0.079466671 -0.21600002 0.56 -3.3429299e+38
-0.078540005 -0.21638572 0.56100005 -3.3031571e+38
-0.077471435 -0.21638572 0.56100005 -3.2632797e+38
-0.076675244 -0.21715716 0.56300002 -3.2364866e+38
-0.075737149 -0.21754287 0.56400001 -3.2095899e+38
-0.074662864 -0.21754287 0.56400001 -3.1825894e+38
-0.073719054 -0.21792859 0.565 -3.1688292e+38
-0.072642863 -0.21792859 0.565 -3.1690882e+38
-0.071566671 -0.21792859 0.565 -3.1694007e+38
-0.070490479 -0.21792859 0.565 -3.1830573e+38
-0.097933337 -0.35100001 0.91000003 -3.209694e+38
-0.096200004 -0.35100001 0.91000003 -3.2096416e+38
-0.094259053 -0.35022861 0.90800005 -3.2228822e+38
-0.092529528 -0.35022861 0.90800005 -3.2096418e+38
-0.09080001 -0.35022861 0.90800005 -3.1964532e+38
-0.089070484 -0.35022861 0.90800005 -3.2229335e+38
-0.087340958 -0.35022861 0.90800005 -3.2361739e+38
-0.085611433 -0.35022861 0.90800005 -3.2362258e+38
-0.083881907 -0.35022861 0.90800005 -3.2494659e+38
-0.082152389 -0.35022861 0.90800005 -3.2362773e+38
-0.080422863 -0.35022861 0.90800005 -3.2362769e+38
-0.078693338 -0.35022861 0.90800005 -3.2229321e+38
-0.076963812 -0.35022861 0.90800005 -3.2095883e+38
-0.075234294 -0.35022861 0.90800005 -3.2096406e+38
-0.073504768 -0.35022861 0.90800005 -3.2096931e+38
-0.071775243 -0.35022861 0.90800005 -3.2095897e+38
-0.070045717 -0.35022861 0.90800005 -3.2227779e+38
-0.068316191 -0.35022861 0.90800005 -3.2095372e+38
-0.066586673 -0.35022861 0.90800005 -3.1962449e+38
-0.064857148 -0.35022861 0.90800005 -3.1830043e+38
-0.063127622 -0.35022861 0.90800005 -3.169764e+38
-0.0613981 -0.35022861 0.90800005 -3.1830043e+38
-0.059668574 -0.35022861 0.90800005 -3.1962966e+38
-0.057939053 -0.35022861 0.90800005 -3.1830043e+38
-0.056333337 -0.35100001 0.91000003 -3.1830041e+38
-0.054600004 -0.35100001 0.91000003 -3.1830556e+38
-0.052866671 -0.35100001 0.91000003 -3.1698153e+38
-0.051133338 -0.35100001 0.91000003 -3.1830556e+38
-0.049400002 -0.35100001 0.91000003 -3.1962441e+38
-0.047666669 -0.35100001 0.91000003 -3.2095364e+38
-0.045832384 -0.35022861 0.90800005 -3.2361209e+38
-0.044102859 -0.35022861 0.90800005 -3.2094844e+38
-0.042373337 -0.35022861 0.90800005 -3.1830035e+38
-0.040643811 -0.35022861 0.90800005 -3.1830033e+38
-0.038914289 -0.35022861 0.90800005 -3.1829516e+38
-0.037184764 -0.35022861 0.90800005 -3.1696593e+38
-0.035455242 -0.35022861 0.90800005 -3.1696593e+38
-0.033725716 -0.35022861 0.90800005 -3.1431784e+38
-0.031996194 -0.35022861 0.90800005 -3.1300419e+38
-0.030266669 -0.35022861 0.90800005 -3.1299898e+38
-0.028537145 -0.35022861 0.90800005 -3.1433342e+38
-0.026866669 -0.35100001 0.91000003 -3.1565747e+38
-0.025133334 -0.35100001 0.91000003 -3.1697632e+38
-0.023400001 -0.35100001 0.91000003 -3.1830033e+38
-0.021666668 -0.35100001 0.91000003 -3.182951e+38
-0.01999905 -0.35215718 0.91300005 -3.1830025e+38
-0.01826 -0.35215718 0.91300005 -3.1830027e+38
-0.016520953 -0.35215718 0.91300005 -3.196399e+38
-0.014733334 -0.35100001 0.91000003 -3.2097956e+38
-0.013000001 -0.35100001 0.91000003 -3.2229323e+38
-0.011266667 -0.35100001 0.91000003 -3.2362246e+38
-0.0095333336 -0.35100001 0.91000003 -3.2361207e+38
-0.0078000007 -0.35100001 0.91000003 -3.2361209e+38
-0.0060666669 -0.35100001 0.91000003 -3.2361728e+38
-0.0043333336 -0.35100001 0.91000003 -3.2495692e+38
-0.0025942859 -0.35022861 0.90800005 -3.2229846e+38
-0.00086666673 -0.35100001 0.91000003 -3.2096919e+38
0.00086666673 -0.35100001 0.91000003 -3.2096913e+38
0.02414286 -0.2507143 0.65000004 -2.9835171e+38
0.025380954 -0.2507143 0.65000004 -3.0101021e+38
0.026537145 -0.24994287 0.648 -3.0366351e+38
0.027728572 -0.24955715 0.64700001 -3.0764602e+38
0.028737145 -0.24762858 0.64200002 -3.1295782e+38
0.029773336 -0.24608573 0.63800001 -3.1693518e+38
0.030842859 -0.24492858 0.63500005 -3.2226252e+38
0.031951431 -0.24415717 0.63300002 -3.2629176e+38
0.033104762 -0.24377145 0.63200003 -3.3165027e+38
0.034308575 -0.24377145 0.63200003 -3.3831722e+38
0.090819053 -0.24685717 0.64000005 -3.3166622e+38
0.092038102 -0.24685717 0.64000005 -3.1043972e+38
0.093257152 -0.24685717 0.64000005 -2.8231786e+38
0.094476193 -0.24685717 0.64000005 -2.5314699e+38
0.095695242 -0.24685717 0.64000005 -2.3425684e+38
0.096762866 -0.24647145 0.63900006 -2.1415168e+38
0.097980008 -0.24647145 0.63900006 -2.0213092e+38
0.099197149 -0.24647145 0.63900006 -1.900796e+38
0.10041429 -0.24647145 0.63900006 -1.9278479e+38
0.10163143 -0.24647145 0.63900006 -1.9543816e+38
0.10284857 -0.24647145 0.63900006 -2.0476881e+38
0.10406572 -0.24647145 0.63900006 -2.1538745e+38
0.10906572 -0.24955715 0.64700001 -2.5291885e+38
0.1102981 -0.24955715 0.64700001 -2.3972025e+38
0.11153048 -0.24955715 0.64700001 -2.7036539e+38
0.11293715 -0.24994287 0.648 -3.0107286e+38
0.11417144 -0.24994287 0.648 -3.263907e+38
-2.5372117 -2.0909944 5.4480004 -1.955634e+38
-2.5268345 -2.0909944 5.4480004 -1.9690307e+38
-2.5164573 -2.0909944 5.4480004 -1.9690307e+38
-2.3575001 -1.967024 5.1250005 -2.0487325e+38
-2.4196591 -2.027282 5.2820001 -2.128171e+38
-2.3379765 -1.967024 5.1250005 -1.9277966e+38
-2.3631945 -1.9965773 5.2020001 -1.7289919e+38
-2.3532858 -1.9965773 5.2020001 -2.2230991e+38
-2.7109659 -2.3097658 6.0180001 -2.7168925e+38
-2.6995029 -2.3097658 6.0180001 -2.9578209e+38
-2.6880403 -2.3097658 6.0180001 -3.1971854e+38
-2.6765773 -2.3097658 6.0180001 -3.2500947e+38
-2.5752144 -2.2318525 5.8150001 -3.2901794e+38
-2.5218067 -2.1950068 5.7190003 -3.3168161e+38
-2.5109136 -2.1950068 5.7190003 -3.3302646e+38
-2.5000203 -2.1950068 5.7190003 -3.3170767e+38
-2.4486496 -2.1593125 5.6260004 -3.2906488e+38
-2.4379334 -2.1593125 5.6260004 -3.3306822e+38
-2.4272172 -2.1593125 5.6260004 -3.3705596e+38
-0.17170954 -0.20533811 0.53500003 -3.078495e+38
-0.17069049 -0.20533811 0.53500003 -3.3040932e+38
-0.088271432 -0.2130143 0.55500001 -3.3962556e+38
-0.087371431 -0.21339811 0.55600005 -3.3696711e+38
-0.086467624 -0.21378192 0.55700004 -3.3696711e+38
-0.085560009 -0.21416573 0.55800003 -3.3563267e+38
-0.084497146 -0.21416573 0.55800003 -3.3695149e+38
-0.083434291 -0.21416573 0.55800003 -3.3696181e+38
-0.082519054 -0.21454954 0.55900002 -3.3696696e+38
-0.081600003 -0.21493335 0.56 -3.3696698e+38
-0.080533341 -0.21493335 0.56 -3.3563258e+38
-0.079750478 -0.21570097 0.56200004 -3.3297934e+38
-0.078960001 -0.21646859 0.56400001 -3.2900725e+38
-0.078023814 -0.2168524 0.565 -3.2366432e+38
-0.076947622 -0.2168524 0.565 -3.2497274e+38
-0.07587143 -0.2168524 0.565 -3.2492595e+38
-0.074927621 -0.21723621 0.56600004 -3.222051e+38
-0.073849529 -0.21723621 0.56600004 -3.1955699e+38
-0.07277143 -0.21723621 0.56600004 -3.1824849e+38
-0.071693338 -0.21723621 0.56600004 -3.1697125e+38
-0.070490479 -0.2168524 0.565 -3.196713e+38
-0.099995248 -0.35041812 0.91300005 -3.2495714e+38
-0.098256201 -0.35041812 0.91300005 -3.2362787e+38
-0.096200004 -0.34926668 0.91000003 -3.2229343e+38
-0.094466671 -0.34926668 0.91000003 -3.2096938e+38
-0.092733338 -0.34926668 0.91000003 -3.2096936e+38
-0.091000006 -0.34926668 0.91000003 -3.1964011e+38
-0.089266673 -0.34926668 0.91000003 -3.2229335e+38
-0.08753334 -0.34926668 0.91000003 -3.2495181e+38
-0.085611433 -0.34849906 0.90800005 -3.2628103e+38
-0.084066674 -0.34926668 0.91000003 -3.2628103e+38
-0.082333341 -0.34926668 0.91000003 -3.2495179e+38
-0.080600008 -0.34926668 0.91000003 -3.2229848e+38
-0.078866675 -0.34926668 0.91000003 -3.2096404e+38
-0.077133335 -0.34926668 0.91000003 -3.1963481e+38
-0.075400002 -0.34926668 0.91000003 -3.2096406e+38
-0.073666669 -0.34926668 0.91000003 -3.2096929e+38
-0.071933337 -0.34926668 0.91000003 -3.2229337e+38
-0.070200004 -0.34926668 0.91000003 -3.2228818e+38
-0.068316191 -0.34849906 0.90800005 -3.2095376e+38
-0.066586673 -0.34849906 0.90800005 -3.1830571e+38
-0.065000005 -0.34926668 0.91000003 -3.1564725e+38
-0.063266672 -0.34926668 0.91000003 -3.1166478e+38
-0.061533336 -0.34926668 0.91000003 -3.1431804e+38
-0.059668574 -0.34849906 0.90800005 -3.1697648e+38
-0.057939053 -0.34849906 0.90800005 -3.1830569e+38
-0.056333337 -0.34926668 0.91000003 -3.1830563e+38
-0.054600004 -0.34926668 0.91000003 -3.1831078e+38
-0.052866671 -0.34926668 0.91000003 -3.1698672e+38
-0.051133338 -0.34926668 0.91000003 -3.1699189e+38
-0.049400002 -0.34926668 0.91000003 -3.1698672e+38
-0.047666669 -0.34926668 0.91000003 -3.1964518e+38
-0.045933336 -0.34926668 0.91000003 -3.2228806e+38
-0.044200003 -0.34926668 0.91000003 -3.2093806e+38
-0.042373337 -0.34849906 0.90800005 -3.1829518e+38
-0.040643811 -0.34849906 0.90800005 -3.1829001e+38
-0.038914289 -0.34849906 0.90800005 -3.1697114e+38
-0.037184764 -0.34849906 0.90800005 -3.1830556e+38
-0.035455242 -0.34849906 0.90800005 -3.1830554e+38
-0.033725716 -0.34849906 0.90800005 -3.1697632e+38
-0.031996194 -0.34849906 0.90800005 -3.1432303e+38
-0.030266669 -0.34849906 0.90800005 -3.1565224e+38
-0.028537145 -0.34849906 0.90800005 -3.1565745e+38
-0.026807621 -0.34849906 0.90800005 -3.1698149e+38
-0.025133334 -0.34926668 0.91000003 -3.169763e+38
-0.023477145 -0.35041812 0.91300005 -3.1830033e+38
-0.021738097 -0.35041812 0.91300005 -3.1830029e+38
-0.01999905 -0.35041812 0.91300005 -3.1830027e+38
-0.01826 -0.35041812 0.91300005 -3.1829508e+38
-0.016520953 -0.35041812 0.91300005 -3.1962433e+38
-0.014733334 -0.34926668 0.91000003 -3.2096396e+38
-0.013000001 -0.34926668 0.91000003 -3.2228802e+38
-0.011266667 -0.34926668 0.91000003 -3.2361205e+38
-0.0095333336 -0.34926668 0.91000003 -3.2359645e+38
-0.0078000007 -0.34926668 0.91000003 -3.222828e+38
-0.0060666669 -0.34926668 0.91000003 -3.2227761e+38
-0.0043333336 -0.34926668 0.91000003 -3.2229319e+38
-0.0026000002 -0.34926668 0.91000003 -3.2097436e+38
-0.00086666673 -0.34926668 0.91000003 -3.1963471e+38
0.00086952385 -0.35041812 0.91300005 -3.2095873e+38
0.0026085717 -0.35041812 0.91300005 -3.2229317e+38
0.02414286 -0.24947621 0.65000004 -2.9965492e+38
0.025380954 -0.24947621 0.65000004 -3.0231341e+38
0.026619049 -0.24947621 0.65000004 -3.0363749e+38
0.02777143 -0.24870859 0.648 -3.0894406e+38
0.028826669 -0.24717335 0.64400005 -3.1292657e+38
0.029680002 -0.24410288 0.63600004 -3.1555389e+38
0.030842859 -0.24371906 0.63500005 -3.1825399e+38
0.031951431 -0.24295144 0.63300002 -3.2229887e+38
0.033157144 -0.24295144 0.63300002 -3.2631263e+38
0.034308575 -0.24256763 0.63200003 -3.3297964e+38
0.035456192 -0.24218382 0.63100004 -3.3832767e+38
0.090819053 -0.24563812 0.64000005 -3.1161799e+38
0.092038102 -0.24563812 0.64000005 -2.6890039e+38
0.093257152 -0.24563812 0.64000005 -2.1933935e+38
0.094476193 -0.24563812 0.64000005 -1.7029782e+38
0.095695242 -0.24563812 0.64000005 -1.8476849e+38
0.096762866 -0.24525431 0.63900006 -1.9950409e+38
0.097980008 -0.24525431 0.63900006 -2.0487278e+38
0.099197149 -0.24525431 0.63900006 -2.0880331e+38
0.10906572 -0.24832478 0.64700001 -2.4872252e+38
0.11046858 -0.24870859 0.648 -1.8233406e+38
0.11118572 -0.24755716 0.64500004 -2.1429808e+38
0.11293715 -0.24870859 0.648 -2.4506307e+38
0.11417144 -0.24870859 0.648 -3.0114048e+38
-2.3807144 -1.9286191 5.0500002 -2.0619191e+38
-2.3710954 -1.9286191 5.0500002 -2.0486272e+38
-2.5083086 -2.0485373 5.3640003 -2.0220431e+38
-2.4980917 -2.0485373 5.3640003 -2.0088552e+38
-2.4878745 -2.0485373 5.3640003 -2.0221481e+38
-2.4776573 -2.0485373 5.3640003 -2.03544e+38
-2.4297202 -2.017221 5.2820001 -2.062024e+38
-2.3830116 -1.9866687 5.2020001 -2.1017937e+38
-2.3379765 -1.957262 5.1250005 -1.9149716e+38
-2.4367888 -2.0485373 5.3640003 -1.7281065e+38
-2.4265716 -2.0485373 5.3640003 -2.1951074e+38
-2.7109659 -2.2983031 6.0180001 -2.6492847e+38
-2.6995029 -2.2983031 6.0180001 -2.9441104e+38
-2.6880403 -2.2983031 6.0180001 -3.2240799e+38
-2.6765773 -2.2983031 6.0180001 -3.2370612e+38
-2.6651144 -2.2983031 6.0180001 -3.2370616e+38
-2.5641382 -2.2207763 5.8150001 -3.2504582e+38
-2.5109136 -2.1841135 5.7190003 -3.263803e+38
-2.5000203 -2.1841135 5.7190003 -3.2640111e+38
-2.4891269 -2.1841135 5.7190003 -3.2774601e+38
-2.4782336 -2.1841135 5.7190003 -3.2906494e+38
-2.4673402 -2.1841135 5.7190003 -3.3039946e+38
